ply
    format ascii 1.0
    element vertex 87822
    property float x
    property float y
    property float z
    property uchar red
    property uchar green
    property uchar blue
    end_header
-2.547552 0.676967 -4.008543 7 14 11 
-2.541996 0.676967 -4.008543 8 17 15 
-2.564940 0.684573 -4.053583 7 16 11 
-2.588405 0.692352 -4.099646 8 17 14 
-2.673878 0.716788 -4.244339 7 16 11 
-2.667996 0.716788 -4.244339 7 16 12 
-2.759508 0.743012 -4.399620 8 15 11 
-2.753411 0.743012 -4.399620 8 15 12 
-2.747313 0.743012 -4.399620 9 17 12 
-2.708189 0.734060 -4.346613 28 36 29 
-2.735118 0.743012 -4.399620 12 20 14 
-2.762712 0.752185 -4.453937 20 32 21 
-2.756539 0.752185 -4.453937 90 80 78 
-2.750366 0.752185 -4.453937 81 75 68 
-2.710728 0.743012 -4.399620 90 84 77 
-2.738020 0.752185 -4.453937 85 79 69 
-2.765996 0.761588 -4.509611 43 41 33 
-2.759746 0.761588 -4.509611 16 29 14 
-2.753496 0.761588 -4.509611 115 107 100 
-2.782021 0.771228 -4.566694 92 87 76 
-2.740996 0.761588 -4.509611 100 93 84 
-2.769363 0.771228 -4.566694 95 87 80 
-2.763034 0.771228 -4.566694 56 48 45 
-2.756705 0.771228 -4.566694 1 9 3 
-2.785637 0.781115 -4.625242 15 21 15 
-2.779227 0.781115 -4.625242 11 20 14 
-2.772816 0.781115 -4.625242 12 18 13 
-2.731388 0.771228 -4.566694 13 20 14 
-2.725059 0.771228 -4.566694 11 19 13 
-2.718730 0.771228 -4.566694 11 22 14 
-2.782853 0.791260 -4.685310 10 20 12 
-2.740765 0.781115 -4.625242 13 21 15 
-2.734355 0.781115 -4.625242 11 18 13 
-2.727944 0.781115 -4.625242 13 22 15 
-2.721534 0.781115 -4.625242 13 20 13 
-2.750385 0.791260 -4.685310 14 23 16 
-2.743892 0.791260 -4.685310 11 19 14 
-2.737398 0.791260 -4.685310 13 22 17 
-2.730905 0.791260 -4.685310 11 19 13 
-2.724411 0.791260 -4.685310 14 22 16 
-2.717918 0.791260 -4.685310 12 19 13 
-2.747101 0.801671 -4.746959 12 20 15 
-2.704931 0.791260 -4.685310 11 19 13 
-2.698437 0.791260 -4.685310 11 21 15 
-2.691944 0.791260 -4.685310 11 18 12 
-2.685450 0.791260 -4.685310 12 21 15 
-2.678957 0.791260 -4.685310 11 20 13 
-2.672463 0.791260 -4.685310 13 20 15 
-2.665970 0.791260 -4.685310 11 19 13 
-2.659476 0.791260 -4.685310 13 20 16 
-2.652983 0.791260 -4.685310 12 20 15 
-2.646489 0.791260 -4.685310 12 22 17 
-2.606149 0.781115 -4.625242 11 20 12 
-2.633502 0.791260 -4.685310 13 22 15 
-2.593329 0.781115 -4.625242 13 21 14 
-2.586919 0.781115 -4.625242 15 21 16 
-2.580508 0.781115 -4.625242 13 20 15 
-2.574098 0.781115 -4.625242 11 19 16 
-2.567688 0.781115 -4.625242 10 18 13 
-2.561278 0.781115 -4.625242 12 22 16 
-2.554868 0.781115 -4.625242 12 21 13 
-2.548457 0.781115 -4.625242 14 22 15 
-2.542047 0.781115 -4.625242 12 20 12 
-2.535637 0.781115 -4.625242 14 22 15 
-2.529227 0.781115 -4.625242 12 20 13 
-2.522816 0.781115 -4.625242 13 21 16 
-2.516406 0.781115 -4.625242 13 20 14 
-2.478224 0.771228 -4.566694 13 21 17 
-2.503585 0.781115 -4.625242 14 20 15 
-2.497175 0.781115 -4.625242 15 22 18 
-2.490765 0.781115 -4.625242 12 20 16 
-2.484355 0.781115 -4.625242 12 21 17 
-2.477944 0.781115 -4.625242 12 21 14 
-2.503632 0.791260 -4.685310 14 23 17 
-2.497139 0.791260 -4.685310 12 21 14 
-2.490645 0.791260 -4.685310 14 22 16 
-2.484151 0.791260 -4.685310 14 19 14 
-2.477658 0.791260 -4.685310 15 23 17 
-2.471164 0.791260 -4.685310 13 20 14 
-2.464671 0.791260 -4.685310 15 24 17 
-2.458177 0.791260 -4.685310 14 23 15 
-2.451684 0.791260 -4.685310 16 24 18 
-2.445190 0.791260 -4.685310 16 22 17 
-2.438697 0.791260 -4.685310 16 24 16 
-2.432204 0.791260 -4.685310 15 21 13 
-2.425710 0.791260 -4.685310 14 23 16 
-2.419216 0.791260 -4.685310 15 21 15 
-2.412723 0.791260 -4.685310 17 23 18 
-2.406229 0.791260 -4.685310 14 21 14 
-2.368970 0.781115 -4.625242 16 23 17 
-2.393242 0.791260 -4.685310 15 21 14 
-2.356149 0.781115 -4.625242 17 24 18 
-2.380255 0.791260 -4.685310 15 22 18 
-2.373762 0.791260 -4.685310 16 24 19 
-2.336919 0.781115 -4.625242 17 23 16 
-2.360775 0.791260 -4.685310 16 23 18 
-2.354281 0.791260 -4.685310 18 23 16 
-2.347788 0.791260 -4.685310 18 24 19 
-2.341294 0.791260 -4.685310 18 23 17 
-2.334801 0.791260 -4.685310 17 24 18 
-2.328307 0.791260 -4.685310 17 24 17 
-2.321814 0.791260 -4.685310 18 24 19 
-2.285637 0.781115 -4.625242 19 25 16 
-2.308827 0.791260 -4.685310 21 27 20 
-2.302333 0.791260 -4.685310 19 25 19 
-2.266406 0.781115 -4.625242 17 24 18 
-2.289346 0.791260 -4.685310 17 23 17 
-2.253585 0.781115 -4.625242 20 25 20 
-2.276359 0.791260 -4.685310 17 25 17 
-2.240765 0.781115 -4.625242 19 26 18 
-2.263372 0.791260 -4.685310 18 25 17 
-2.256879 0.791260 -4.685310 21 28 20 
-2.250385 0.791260 -4.685310 20 27 18 
-2.243892 0.791260 -4.685310 19 27 21 
-2.237398 0.791260 -4.685310 20 26 19 
-2.260259 0.801671 -4.746959 20 28 19 
-2.224411 0.791260 -4.685310 22 27 17 
-2.217918 0.791260 -4.685310 22 29 22 
-2.211424 0.791260 -4.685310 22 27 20 
-2.204931 0.791260 -4.685310 20 26 20 
-2.198437 0.791260 -4.685310 21 24 19 
-2.191944 0.791260 -4.685310 15 20 16 
-2.214206 0.801671 -4.746959 6 13 8 
-2.207627 0.801671 -4.746959 9 16 12 
-2.172463 0.791260 -4.685310 6 13 10 
-2.165970 0.791260 -4.685310 7 15 10 
-2.187890 0.801671 -4.746959 6 14 9 
-2.152983 0.791260 -4.685310 6 14 11 
-2.174732 0.801671 -4.746959 5 12 8 
-2.139996 0.791260 -4.685310 7 15 11 
-2.133502 0.791260 -4.685310 6 13 9 
-2.127009 0.791260 -4.685310 7 15 11 
-2.093329 0.781115 -4.625242 6 14 10 
-2.086919 0.781115 -4.625242 6 15 12 
-2.080508 0.781115 -4.625242 6 13 11 
-2.074098 0.781115 -4.625242 7 13 10 
-2.041515 0.771228 -4.566694 6 12 9 
-2.035186 0.771228 -4.566694 7 14 12 
-2.054868 0.781115 -4.625242 7 13 9 
-2.048457 0.781115 -4.625242 6 14 11 
-2.016198 0.771228 -4.566694 7 19 12 
-2.009869 0.771228 -4.566694 18 37 37 
-2.003540 0.771228 -4.566694 22 43 50 
-1.997211 0.771228 -4.566694 16 41 46 
-1.990882 0.771228 -4.566694 18 42 45 
-1.984553 0.771228 -4.566694 21 44 49 
-1.978224 0.771228 -4.566694 18 38 48 
-1.971895 0.771228 -4.566694 17 41 48 
-1.990765 0.781115 -4.625242 16 41 45 
-1.959236 0.771228 -4.566694 17 42 47 
-1.952907 0.771228 -4.566694 20 43 48 
-1.946578 0.771228 -4.566694 23 45 51 
-1.915996 0.761588 -4.509611 17 43 46 
-1.886169 0.752185 -4.453937 20 45 48 
-1.927591 0.771228 -4.566694 24 47 49 
-1.921262 0.771228 -4.566694 26 48 53 
-1.914932 0.771228 -4.566694 18 43 49 
-1.908603 0.771228 -4.566694 22 46 53 
-1.878496 0.761588 -4.509611 19 44 48 
-1.826581 0.743012 -4.399620 21 46 53 
-1.865996 0.761588 -4.509611 22 46 51 
-1.859746 0.761588 -4.509611 21 48 53 
-1.853496 0.761588 -4.509611 20 44 51 
-1.824440 0.752185 -4.453937 21 46 54 
-1.840996 0.761588 -4.509611 20 43 48 
-1.834746 0.761588 -4.509611 17 43 43 
-1.828496 0.761588 -4.509611 35 57 46 
-1.799749 0.752185 -4.453937 114 109 96 
-1.793576 0.752185 -4.453937 114 103 89 
-1.787403 0.752185 -4.453937 116 106 91 
-1.803496 0.761588 -4.509611 121 107 90 
-1.775058 0.752185 -4.453937 112 96 86 
-1.768885 0.752185 -4.453937 68 71 54 
-1.762712 0.752185 -4.453937 122 108 97 
-1.778496 0.761588 -4.509611 87 74 68 
-1.729020 0.743012 -4.399620 76 71 58 
-1.722923 0.743012 -4.399620 83 78 69 
-1.696141 0.734060 -4.346613 78 77 63 
-1.710728 0.743012 -4.399620 85 76 66 
-1.704630 0.743012 -4.399620 66 67 55 
-1.740996 0.761588 -4.509611 86 78 70 
-1.692435 0.743012 -4.399620 103 88 83 
-1.707156 0.752185 -4.453937 58 58 45 
-1.680240 0.743012 -4.399620 91 82 74 
-1.674142 0.743012 -4.399620 94 82 73 
-1.668045 0.743012 -4.399620 68 72 54 
-1.661947 0.743012 -4.399620 131 117 104 
-1.655850 0.743012 -4.399620 110 103 88 
-1.649752 0.743012 -4.399620 121 106 93 
-1.643654 0.743012 -4.399620 117 101 92 
-1.637557 0.743012 -4.399620 83 76 64 
-1.631459 0.743012 -4.399620 98 93 77 
-1.625362 0.743012 -4.399620 130 107 103 
-1.619264 0.743012 -4.399620 74 71 61 
-1.613167 0.743012 -4.399620 66 62 53 
-1.607069 0.743012 -4.399620 80 75 66 
-1.581683 0.734060 -4.346613 66 66 52 
-1.594874 0.743012 -4.399620 95 84 76 
-1.588776 0.743012 -4.399620 87 82 71 
-1.563610 0.734060 -4.346613 104 92 80 
-1.557586 0.734060 -4.346613 76 82 62 
-1.551562 0.734060 -4.346613 141 122 114 
-1.545538 0.734060 -4.346613 121 106 97 
-1.521186 0.725321 -4.294868 128 109 102 
-1.533490 0.734060 -4.346613 126 107 100 
-1.509282 0.725321 -4.294868 126 111 103 
-1.503329 0.725321 -4.294868 129 113 101 
-1.497377 0.725321 -4.294868 124 107 97 
-1.491425 0.725321 -4.294868 89 82 72 
-1.485472 0.725321 -4.294868 78 85 67 
-1.479520 0.725321 -4.294868 93 90 74 
-1.473567 0.725321 -4.294868 92 82 73 
-1.467615 0.725321 -4.294868 84 76 69 
-1.461663 0.725321 -4.294868 73 76 62 
-1.455710 0.725321 -4.294868 105 91 83 
-1.449758 0.725321 -4.294868 99 83 78 
-1.443805 0.725321 -4.294868 79 77 68 
-1.437853 0.725321 -4.294868 118 97 93 
-1.431901 0.725321 -4.294868 89 78 70 
-1.425948 0.725321 -4.294868 78 76 66 
-1.437104 0.734060 -4.346613 96 84 75 
-1.431080 0.734060 -4.346613 103 96 82 
-1.425056 0.734060 -4.346613 122 108 96 
-3.521442 0.728036 -4.346613 62 72 74 
-3.515418 0.728036 -4.346613 65 74 77 
-3.509393 0.728036 -4.346613 68 76 79 
-3.546093 0.736915 -4.399620 72 80 82 
-3.539996 0.736915 -4.399620 72 79 80 
-3.533898 0.736915 -4.399620 72 81 83 
-3.527801 0.736915 -4.399620 70 77 80 
-3.521703 0.736915 -4.399620 65 75 77 
-3.473249 0.728036 -4.346613 67 74 75 
-3.509508 0.736915 -4.399620 69 78 78 
-3.503411 0.736915 -4.399620 70 78 78 
-3.497313 0.736915 -4.399620 75 82 84 
-3.491215 0.736915 -4.399620 72 80 81 
-3.528144 0.746012 -4.453937 67 76 77 
-3.521971 0.746012 -4.453937 65 75 75 
-3.515798 0.746012 -4.453937 64 69 69 
-3.509625 0.746012 -4.453937 15 22 19 
-3.460728 0.736915 -4.399620 3 8 6 
-3.454630 0.736915 -4.399620 7 14 11 
-3.491107 0.746012 -4.453937 6 14 12 
-3.484934 0.746012 -4.453937 5 11 10 
-3.522246 0.755337 -4.509611 6 12 10 
-3.515996 0.755337 -4.509611 5 12 10 
-3.554173 0.764899 -4.566694 6 13 10 
-3.460243 0.746012 -4.453937 6 13 9 
-3.454070 0.746012 -4.453937 6 13 11 
-3.490996 0.755337 -4.509611 4 10 9 
-3.484746 0.755337 -4.509611 6 12 10 
-3.478496 0.755337 -4.509611 5 11 10 
-3.561278 0.774705 -4.625242 7 13 12 
-3.509869 0.764899 -4.566694 5 12 9 
-3.503540 0.764899 -4.566694 5 13 12 
-3.497211 0.764899 -4.566694 5 13 11 
-3.447246 0.755337 -4.509611 7 14 12 
-3.484553 0.764899 -4.566694 6 13 11 
-3.478224 0.764899 -4.566694 6 15 13 
-3.471895 0.764899 -4.566694 5 12 10 
-3.465565 0.764899 -4.566694 7 16 14 
-3.459236 0.764899 -4.566694 6 13 11 
-3.497175 0.774705 -4.625242 8 15 13 
-3.536099 0.784766 -4.685310 5 14 10 
-3.484355 0.774705 -4.625242 8 16 12 
-3.433920 0.764899 -4.566694 7 14 11 
-3.427591 0.764899 -4.566694 8 16 13 
-3.465124 0.774705 -4.625242 7 15 11 
-3.503632 0.784766 -4.685310 9 18 15 
-3.452303 0.774705 -4.625242 9 15 11 
-3.445893 0.774705 -4.625242 10 18 14 
-3.439483 0.774705 -4.625242 9 17 12 
-3.477658 0.784766 -4.685310 10 19 15 
-3.471164 0.784766 -4.685310 9 17 13 
-3.420252 0.774705 -4.625242 11 18 15 
-3.413842 0.774705 -4.625242 10 17 12 
-3.407432 0.774705 -4.625242 10 19 16 
-3.401021 0.774705 -4.625242 10 16 13 
-3.394611 0.774705 -4.625242 13 20 16 
-3.345312 0.764899 -4.566694 11 19 14 
-3.338983 0.764899 -4.566694 11 20 15 
-3.375380 0.774705 -4.625242 12 19 14 
-3.368970 0.774705 -4.625242 13 21 15 
-3.362560 0.774705 -4.625242 11 18 13 
-3.356149 0.774705 -4.625242 12 20 17 
-3.349739 0.774705 -4.625242 11 17 15 
-3.386749 0.784766 -4.685310 11 19 16 
-3.380255 0.784766 -4.685310 10 17 14 
-3.373762 0.784766 -4.685310 11 21 15 
-3.324098 0.774705 -4.625242 10 19 13 
-3.317688 0.774705 -4.625242 10 20 16 
-3.311278 0.774705 -4.625242 10 18 15 
-3.222246 0.755337 -4.509611 11 20 15 
-3.137557 0.736915 -4.399620 11 19 14 
-3.131459 0.736915 -4.399620 11 20 15 
-3.125362 0.736915 -4.399620 11 19 14 
-3.081683 0.728036 -4.346613 11 22 16 
-3.003290 0.710906 -4.244339 11 20 15 
-2.962554 0.702640 -4.194987 12 21 16 
-2.922755 0.694563 -4.146769 11 18 14 
-2.917008 0.694563 -4.146769 12 19 17 
-2.878178 0.686670 -4.099646 12 18 14 
-2.840221 0.678955 -4.053583 13 22 18 
-2.834603 0.678955 -4.053583 11 20 16 
-2.797552 0.671411 -4.008543 13 21 16 
-2.791996 0.671411 -4.008543 12 19 16 
-2.786441 0.671411 -4.008543 14 25 20 
-2.720431 0.656815 -3.921401 28 36 33 
-2.685803 0.649753 -3.879235 31 36 32 
-2.651911 0.642840 -3.837967 34 37 31 
-2.618733 0.636074 -3.797567 31 33 29 
-2.586246 0.629448 -3.758009 13 21 15 
-2.554430 0.622959 -3.719267 13 21 18 
-2.523262 0.616602 -3.681315 12 18 15 
-2.492724 0.610374 -3.644130 13 20 17 
-2.487673 0.610374 -3.644130 12 19 15 
-2.457797 0.604270 -3.607689 13 22 17 
-2.452797 0.604270 -3.607689 11 18 13 
-2.472522 0.610374 -3.644130 13 20 16 
-2.492650 0.616602 -3.681315 12 20 13 
-2.437797 0.604270 -3.607689 12 20 15 
-2.408710 0.598287 -3.571969 11 18 14 
-2.427797 0.604270 -3.607689 12 22 16 
-2.422797 0.604270 -3.607689 11 20 14 
-2.442219 0.610374 -3.644130 11 21 17 
-2.412797 0.604270 -3.607689 12 18 14 
-2.407797 0.604270 -3.607689 13 20 16 
-2.427067 0.610374 -3.644130 12 18 13 
-2.397797 0.604270 -3.607689 12 20 16 
-2.416966 0.610374 -3.644130 11 19 15 
-2.411916 0.610374 -3.644130 12 19 16 
-2.406865 0.610374 -3.644130 11 18 14 
-2.401815 0.610374 -3.644130 11 19 14 
-2.396764 0.610374 -3.644130 12 21 14 
-2.391714 0.610374 -3.644130 12 25 18 
-2.386663 0.610374 -3.644130 11 20 15 
-2.405915 0.616602 -3.681315 11 18 18 
-2.400813 0.616602 -3.681315 10 16 13 
-2.395711 0.616602 -3.681315 9 16 13 
-2.366461 0.610374 -3.644130 7 14 11 
-2.385507 0.616602 -3.681315 7 16 13 
-2.404945 0.622959 -3.719267 7 14 11 
-2.399790 0.622959 -3.719267 7 15 11 
-2.394636 0.622959 -3.719267 6 14 10 
-2.365099 0.616602 -3.681315 8 16 13 
-2.384326 0.622959 -3.719267 6 14 11 
-2.379172 0.622959 -3.719267 7 15 12 
-2.398746 0.629448 -3.758009 7 16 12 
-2.497605 0.656815 -3.921401 7 15 11 
-2.519557 0.664033 -3.964493 6 14 10 
-2.514062 0.664033 -3.964493 7 14 11 
-2.508568 0.664033 -3.964493 7 15 11 
-2.530885 0.671411 -4.008543 7 15 11 
-2.642787 0.702640 -4.194987 6 13 10 
-2.636973 0.702640 -4.194987 6 14 13 
-2.726261 0.728036 -4.346613 7 15 11 
-2.720237 0.728036 -4.346613 7 16 13 
-2.714213 0.728036 -4.346613 8 16 13 
-2.675948 0.719369 -4.294868 23 33 28 
-2.735118 0.736915 -4.399620 10 19 13 
-2.729020 0.736915 -4.399620 22 38 24 
-2.722923 0.736915 -4.399620 104 98 90 
-2.716825 0.736915 -4.399620 85 81 69 
-2.710728 0.736915 -4.399620 91 86 76 
-2.738020 0.746012 -4.453937 84 78 71 
-2.765996 0.755337 -4.509611 43 40 34 
-2.759746 0.755337 -4.509611 14 30 14 
-2.753496 0.755337 -4.509611 115 108 101 
-2.747246 0.755337 -4.509611 96 91 79 
-2.740996 0.755337 -4.509611 102 93 85 
-2.734746 0.755337 -4.509611 95 86 81 
-2.728496 0.755337 -4.509611 56 49 43 
-2.756705 0.764899 -4.566694 1 12 4 
-2.785637 0.774705 -4.625242 17 22 17 
-2.744046 0.764899 -4.566694 13 21 16 
-2.772816 0.774705 -4.625242 13 20 14 
-2.731388 0.764899 -4.566694 15 22 16 
-2.725059 0.764899 -4.566694 13 20 12 
-2.718730 0.764899 -4.566694 14 23 16 
-2.782853 0.784766 -4.685310 13 20 13 
-2.740765 0.774705 -4.625242 13 21 16 
-2.734355 0.774705 -4.625242 12 19 15 
-2.727944 0.774705 -4.625242 14 21 17 
-2.721534 0.774705 -4.625242 13 19 14 
-2.786575 0.795092 -4.746959 14 22 16 
-2.779996 0.795092 -4.746959 14 20 14 
-2.737398 0.784766 -4.685310 12 20 15 
-2.730905 0.784766 -4.685310 13 20 14 
-2.724411 0.784766 -4.685310 14 21 17 
-2.717918 0.784766 -4.685310 13 21 15 
-2.747101 0.795092 -4.746959 13 22 16 
-2.704931 0.784766 -4.685310 13 20 14 
-2.698437 0.784766 -4.685310 14 22 15 
-2.691944 0.784766 -4.685310 12 20 15 
-2.685450 0.784766 -4.685310 14 21 17 
-2.678957 0.784766 -4.685310 13 20 15 
-2.672463 0.784766 -4.685310 14 22 15 
-2.665970 0.784766 -4.685310 15 19 14 
-2.659476 0.784766 -4.685310 13 22 15 
-2.652983 0.784766 -4.685310 13 21 15 
-2.646489 0.784766 -4.685310 14 22 17 
-2.606149 0.774705 -4.625242 14 21 16 
-2.633502 0.784766 -4.685310 15 22 16 
-2.593329 0.774705 -4.625242 16 21 15 
-2.586919 0.774705 -4.625242 16 24 18 
-2.580508 0.774705 -4.625242 15 22 16 
-2.574098 0.774705 -4.625242 14 24 16 
-2.567688 0.774705 -4.625242 13 22 16 
-2.561278 0.774705 -4.625242 16 22 17 
-2.554868 0.774705 -4.625242 14 20 15 
-2.548457 0.774705 -4.625242 16 23 17 
-2.542047 0.774705 -4.625242 15 21 15 
-2.535637 0.774705 -4.625242 16 24 18 
-2.529227 0.774705 -4.625242 14 22 15 
-2.522816 0.774705 -4.625242 14 22 18 
-2.516406 0.774705 -4.625242 15 22 16 
-2.478224 0.764899 -4.566694 15 24 17 
-2.503585 0.774705 -4.625242 15 22 15 
-2.497175 0.774705 -4.625242 17 24 18 
-2.490765 0.774705 -4.625242 17 23 17 
-2.484355 0.774705 -4.625242 15 23 18 
-2.477944 0.774705 -4.625242 14 21 15 
-2.503632 0.784766 -4.685310 16 23 17 
-2.497139 0.784766 -4.685310 15 22 15 
-2.490645 0.784766 -4.685310 16 24 18 
-2.484151 0.784766 -4.685310 15 22 16 
-2.477658 0.784766 -4.685310 16 24 19 
-2.471164 0.784766 -4.685310 15 23 17 
-2.464671 0.784766 -4.685310 15 24 18 
-2.458177 0.784766 -4.685310 15 22 15 
-2.451684 0.784766 -4.685310 17 24 18 
-2.445190 0.784766 -4.685310 17 24 16 
-2.438697 0.784766 -4.685310 17 25 16 
-2.432204 0.784766 -4.685310 16 23 15 
-2.425710 0.784766 -4.685310 16 25 17 
-2.419216 0.784766 -4.685310 17 25 18 
-2.412723 0.784766 -4.685310 19 25 20 
-2.437890 0.795092 -4.746959 19 25 19 
-2.399736 0.784766 -4.685310 15 23 17 
-2.393242 0.784766 -4.685310 15 22 16 
-2.386749 0.784766 -4.685310 18 26 20 
-2.380255 0.784766 -4.685310 18 24 16 
-2.373762 0.784766 -4.685310 20 24 19 
-2.367268 0.784766 -4.685310 18 23 17 
-2.360775 0.784766 -4.685310 21 27 19 
-2.354281 0.784766 -4.685310 18 23 18 
-2.347788 0.784766 -4.685310 19 26 19 
-2.341294 0.784766 -4.685310 19 25 17 
-2.334801 0.784766 -4.685310 19 24 18 
-2.328307 0.784766 -4.685310 19 26 16 
-2.321814 0.784766 -4.685310 20 28 19 
-2.285637 0.774705 -4.625242 19 25 18 
-2.308827 0.784766 -4.685310 21 27 20 
-2.302333 0.784766 -4.685310 22 26 21 
-2.266406 0.774705 -4.625242 18 24 17 
-2.289346 0.784766 -4.685310 18 26 17 
-2.253585 0.774705 -4.625242 19 27 18 
-2.276359 0.784766 -4.685310 21 26 17 
-2.240765 0.774705 -4.625242 21 27 19 
-2.263372 0.784766 -4.685310 18 27 19 
-2.256879 0.784766 -4.685310 19 28 21 
-2.250385 0.784766 -4.685310 21 28 18 
-2.243892 0.784766 -4.685310 22 26 19 
-2.237398 0.784766 -4.685310 21 26 20 
-2.260259 0.795092 -4.746959 23 29 22 
-2.224411 0.784766 -4.685310 21 27 18 
-2.217918 0.784766 -4.685310 25 31 21 
-2.211424 0.784766 -4.685310 23 28 20 
-2.204931 0.784766 -4.685310 23 31 21 
-2.198437 0.784766 -4.685310 28 30 22 
-2.191944 0.784766 -4.685310 15 20 16 
-2.214206 0.795092 -4.746959 6 14 8 
-2.207627 0.795092 -4.746959 8 15 11 
-2.172463 0.784766 -4.685310 7 13 9 
-2.165970 0.784766 -4.685310 7 13 12 
-2.187890 0.795092 -4.746959 7 13 10 
-2.152983 0.784766 -4.685310 8 15 11 
-2.174732 0.795092 -4.746959 6 12 10 
-2.139996 0.784766 -4.685310 7 14 10 
-2.133502 0.784766 -4.685310 5 13 10 
-2.127009 0.784766 -4.685310 7 15 12 
-2.093329 0.774705 -4.625242 7 12 9 
-2.086919 0.774705 -4.625242 7 14 11 
-2.107528 0.784766 -4.685310 6 12 10 
-2.074098 0.774705 -4.625242 7 14 11 
-2.041515 0.764899 -4.566694 5 13 9 
-2.035186 0.764899 -4.566694 7 13 11 
-2.054868 0.774705 -4.625242 6 12 9 
-2.048457 0.774705 -4.625242 7 14 11 
-2.042047 0.774705 -4.625242 5 17 13 
-2.009869 0.764899 -4.566694 15 39 38 
-2.003540 0.764899 -4.566694 20 44 49 
-1.997211 0.764899 -4.566694 19 44 48 
-1.990882 0.764899 -4.566694 19 42 47 
-1.984553 0.764899 -4.566694 18 43 49 
-1.978224 0.764899 -4.566694 16 41 48 
-1.971895 0.764899 -4.566694 19 42 47 
-1.990765 0.774705 -4.625242 17 42 46 
-1.959236 0.764899 -4.566694 17 42 48 
-1.952907 0.764899 -4.566694 19 43 48 
-1.946578 0.764899 -4.566694 22 45 53 
-1.915996 0.755337 -4.509611 20 40 47 
-1.886169 0.746012 -4.453937 23 44 50 
-1.927591 0.764899 -4.566694 24 45 50 
-1.921262 0.764899 -4.566694 25 50 54 
-1.914932 0.764899 -4.566694 19 44 48 
-1.908603 0.764899 -4.566694 22 48 54 
-1.878496 0.755337 -4.509611 20 45 51 
-1.826581 0.736915 -4.399620 21 49 53 
-1.865996 0.755337 -4.509611 21 46 53 
-1.859746 0.755337 -4.509611 23 47 54 
-1.853496 0.755337 -4.509611 21 45 51 
-1.847246 0.755337 -4.509611 23 45 51 
-1.840996 0.755337 -4.509611 18 41 48 
-1.834746 0.755337 -4.509611 16 43 44 
-1.828496 0.755337 -4.509611 35 58 47 
-1.799749 0.746012 -4.453937 116 112 96 
-1.793576 0.746012 -4.453937 116 105 90 
-1.787403 0.746012 -4.453937 119 109 93 
-1.803496 0.755337 -4.509611 120 107 91 
-1.797246 0.755337 -4.509611 120 101 94 
-1.768885 0.746012 -4.453937 81 76 63 
-1.762712 0.746012 -4.453937 81 81 67 
-1.778496 0.755337 -4.509611 67 66 53 
-1.729020 0.736915 -4.399620 90 84 77 
-1.722923 0.736915 -4.399620 76 72 62 
-1.696141 0.728036 -4.346613 65 67 54 
-1.710728 0.736915 -4.399620 76 74 60 
-1.704630 0.736915 -4.399620 77 75 62 
-1.740996 0.755337 -4.509611 94 87 76 
-1.692435 0.736915 -4.399620 108 91 87 
-1.707156 0.746012 -4.453937 70 66 57 
-1.680240 0.736915 -4.399620 91 80 72 
-1.674142 0.736915 -4.399620 56 59 43 
-1.668045 0.736915 -4.399620 76 81 63 
-1.661947 0.736915 -4.399620 129 115 102 
-1.655850 0.736915 -4.399620 114 104 90 
-1.649752 0.736915 -4.399620 121 106 94 
-1.643654 0.736915 -4.399620 115 101 92 
-1.637557 0.736915 -4.399620 90 81 71 
-1.631459 0.736915 -4.399620 102 98 81 
-1.625362 0.736915 -4.399620 132 108 105 
-1.619264 0.736915 -4.399620 97 83 78 
-1.613167 0.736915 -4.399620 87 79 70 
-1.607069 0.736915 -4.399620 114 96 90 
-1.581683 0.728036 -4.346613 88 83 71 
-1.594874 0.736915 -4.399620 127 106 100 
-1.588776 0.736915 -4.399620 87 81 69 
-1.563610 0.728036 -4.346613 86 85 73 
-1.557586 0.728036 -4.346613 117 107 94 
-1.551562 0.728036 -4.346613 135 120 108 
-1.545538 0.728036 -4.346613 129 114 101 
-1.521186 0.719369 -4.294868 131 117 103 
-1.533490 0.728036 -4.346613 129 114 100 
-1.509282 0.719369 -4.294868 128 114 101 
-1.503329 0.719369 -4.294868 129 112 100 
-1.497377 0.719369 -4.294868 129 109 99 
-1.491425 0.719369 -4.294868 119 96 88 
-1.485472 0.719369 -4.294868 112 95 86 
-1.479520 0.719369 -4.294868 115 97 88 
-1.473567 0.719369 -4.294868 122 103 97 
-1.467615 0.719369 -4.294868 120 98 93 
-1.461663 0.719369 -4.294868 120 104 95 
-1.455710 0.719369 -4.294868 124 108 95 
-1.449758 0.719369 -4.294868 123 104 96 
-1.443805 0.719369 -4.294868 122 105 93 
-1.437853 0.719369 -4.294868 127 109 100 
-1.431901 0.719369 -4.294868 121 102 94 
-1.425948 0.719369 -4.294868 122 105 97 
-1.437104 0.728036 -4.346613 124 106 95 
-1.431080 0.728036 -4.346613 124 109 96 
-1.425056 0.728036 -4.346613 124 109 95 
-3.521442 0.722012 -4.346613 63 75 74 
-3.515418 0.722012 -4.346613 65 76 78 
-3.509393 0.722012 -4.346613 69 79 80 
-3.546093 0.730817 -4.399620 71 82 81 
-3.539996 0.730817 -4.399620 70 78 78 
-3.533898 0.730817 -4.399620 68 80 80 
-3.527801 0.730817 -4.399620 73 81 82 
-3.521703 0.730817 -4.399620 59 71 74 
-3.473249 0.722012 -4.346613 63 75 76 
-3.509508 0.730817 -4.399620 65 74 78 
-3.503411 0.730817 -4.399620 68 75 78 
-3.497313 0.730817 -4.399620 69 79 80 
-3.491215 0.730817 -4.399620 69 77 77 
-3.485118 0.730817 -4.399620 67 75 77 
-3.521971 0.739839 -4.453937 65 73 74 
-3.515798 0.739839 -4.453937 62 71 71 
-3.509625 0.739839 -4.453937 17 24 21 
-3.460728 0.730817 -4.399620 3 6 6 
-3.454630 0.730817 -4.399620 8 13 11 
-3.491107 0.739839 -4.453937 6 14 11 
-3.484934 0.739839 -4.453937 3 10 8 
-3.522246 0.749087 -4.509611 7 14 11 
-3.515996 0.749087 -4.509611 5 11 9 
-3.554173 0.758570 -4.566694 6 13 11 
-3.460243 0.739839 -4.453937 4 12 9 
-3.454070 0.739839 -4.453937 6 13 11 
-3.490996 0.749087 -4.509611 5 11 9 
-3.484746 0.749087 -4.509611 6 13 12 
-3.478496 0.749087 -4.509611 5 12 10 
-3.561278 0.768295 -4.625242 6 13 10 
-3.509869 0.758570 -4.566694 5 13 9 
-3.503540 0.758570 -4.566694 6 14 11 
-3.497211 0.758570 -4.566694 6 12 10 
-3.447246 0.749087 -4.509611 5 13 13 
-3.484553 0.758570 -4.566694 5 12 10 
-3.522816 0.768295 -4.625242 7 14 12 
-3.471895 0.758570 -4.566694 6 13 11 
-3.509996 0.768295 -4.625242 6 14 14 
-3.459236 0.758570 -4.566694 6 11 10 
-3.497175 0.768295 -4.625242 7 14 11 
-3.536099 0.778273 -4.685310 6 14 10 
-3.484355 0.768295 -4.625242 6 15 13 
-3.433920 0.758570 -4.566694 6 14 11 
-3.427591 0.758570 -4.566694 6 14 11 
-3.465124 0.768295 -4.625242 7 14 11 
-3.503632 0.778273 -4.685310 6 16 14 
-3.497139 0.778273 -4.685310 6 12 11 
-3.445893 0.768295 -4.625242 7 14 12 
-3.439483 0.768295 -4.625242 7 14 10 
-3.477658 0.778273 -4.685310 9 16 13 
-3.471164 0.778273 -4.685310 7 14 10 
-3.420252 0.768295 -4.625242 8 16 14 
-3.413842 0.768295 -4.625242 7 14 12 
-3.407432 0.768295 -4.625242 8 18 14 
-3.445190 0.778273 -4.685310 9 17 13 
-3.394611 0.768295 -4.625242 10 19 15 
-3.345312 0.758570 -4.566694 9 18 12 
-3.338983 0.758570 -4.566694 11 19 14 
-3.375380 0.768295 -4.625242 10 17 13 
-3.412723 0.778273 -4.685310 10 18 15 
-3.362560 0.768295 -4.625242 9 17 12 
-3.356149 0.768295 -4.625242 10 19 14 
-3.349739 0.768295 -4.625242 10 17 12 
-3.386749 0.778273 -4.685310 11 20 15 
-3.380255 0.778273 -4.685310 10 18 14 
-3.373762 0.778273 -4.685310 10 19 15 
-3.324098 0.768295 -4.625242 9 16 12 
-3.317688 0.768295 -4.625242 10 18 15 
-3.311278 0.768295 -4.625242 9 16 12 
-3.222246 0.749087 -4.509611 10 20 15 
-3.176292 0.739839 -4.453937 10 17 15 
-3.170119 0.739839 -4.453937 11 19 14 
-3.125362 0.730817 -4.399620 11 18 12 
-3.119264 0.730817 -4.399620 11 21 15 
-3.039044 0.713417 -4.294868 10 18 14 
-2.962554 0.696826 -4.194987 11 20 16 
-2.956740 0.696826 -4.194987 9 17 13 
-2.950926 0.696826 -4.194987 12 20 16 
-2.911261 0.688816 -4.146769 12 19 15 
-2.840221 0.673337 -4.053583 12 20 17 
-2.834603 0.673337 -4.053583 12 18 15 
-2.828985 0.673337 -4.053583 13 20 17 
-2.791996 0.665856 -4.008543 12 20 16 
-2.786441 0.665856 -4.008543 13 22 19 
-2.750326 0.658538 -3.964493 17 26 20 
-2.685803 0.644376 -3.879235 17 29 24 
-2.651911 0.637521 -3.837967 22 33 26 
-2.618733 0.630810 -3.797567 29 37 31 
-2.586246 0.624240 -3.758009 28 33 26 
-2.528364 0.611500 -3.681315 8 19 12 
-2.497774 0.605323 -3.644130 13 21 16 
-2.467797 0.599270 -3.607689 12 20 17 
-2.462797 0.599270 -3.607689 12 20 16 
-2.457797 0.599270 -3.607689 12 22 17 
-2.452797 0.599270 -3.607689 12 19 13 
-2.447797 0.599270 -3.607689 12 21 16 
-2.467471 0.605323 -3.644130 10 18 12 
-2.413660 0.593337 -3.571969 11 20 13 
-2.408710 0.593337 -3.571969 12 19 14 
-2.427797 0.599270 -3.607689 12 20 16 
-2.422797 0.599270 -3.607689 10 18 12 
-2.417797 0.599270 -3.607689 10 18 14 
-2.412797 0.599270 -3.607689 9 17 12 
-2.407797 0.599270 -3.607689 11 20 15 
-2.427067 0.605323 -3.644130 11 18 14 
-2.397797 0.599270 -3.607689 11 21 15 
-2.416966 0.605323 -3.644130 13 20 14 
-2.411916 0.605323 -3.644130 12 20 16 
-2.406865 0.605323 -3.644130 11 20 15 
-2.401815 0.605323 -3.644130 13 21 15 
-2.396764 0.605323 -3.644130 13 20 15 
-2.391714 0.605323 -3.644130 16 23 18 
-2.386663 0.605323 -3.644130 15 21 18 
-2.381613 0.605323 -3.644130 10 18 14 
-2.376562 0.605323 -3.644130 12 17 15 
-2.371512 0.605323 -3.644130 9 16 12 
-2.366461 0.605323 -3.644130 8 15 13 
-2.361411 0.605323 -3.644130 8 15 14 
-2.380405 0.611500 -3.681315 6 14 10 
-2.399790 0.617804 -3.719267 8 16 13 
-2.394636 0.617804 -3.719267 7 13 10 
-2.341209 0.605323 -3.644130 8 14 13 
-2.384326 0.617804 -3.719267 5 13 10 
-2.379172 0.617804 -3.719267 6 15 12 
-2.398746 0.624240 -3.758009 6 13 10 
-2.444464 0.637521 -3.837967 8 15 12 
-2.492170 0.651380 -3.921401 6 13 10 
-2.486736 0.651380 -3.921401 8 16 12 
-2.481301 0.651380 -3.921401 6 13 10 
-2.503073 0.658538 -3.964493 7 16 12 
-2.612410 0.688816 -4.146769 6 13 10 
-2.606663 0.688816 -4.146769 8 15 12 
-2.693805 0.713417 -4.294868 7 14 11 
-2.687853 0.713417 -4.294868 7 14 11 
-2.681901 0.713417 -4.294868 8 15 11 
-2.644467 0.705024 -4.244339 25 31 30 
-2.702165 0.722012 -4.346613 14 17 17 
-2.696141 0.722012 -4.346613 21 34 23 
-2.690116 0.722012 -4.346613 106 100 93 
-2.716825 0.730817 -4.399620 86 83 70 
-2.678068 0.722012 -4.346613 92 87 75 
-2.704630 0.730817 -4.399620 86 81 72 
-2.731848 0.739839 -4.453937 45 43 36 
-2.759746 0.749087 -4.509611 12 26 12 
-2.753496 0.749087 -4.509611 116 109 102 
-2.747246 0.749087 -4.509611 94 90 79 
-2.707156 0.739839 -4.453937 101 94 84 
-2.734746 0.749087 -4.509611 96 87 81 
-2.728496 0.749087 -4.509611 58 50 44 
-2.756705 0.758570 -4.566694 2 12 2 
-2.785637 0.768295 -4.625242 16 21 16 
-2.744046 0.758570 -4.566694 11 21 15 
-2.772816 0.768295 -4.625242 12 18 14 
-2.731388 0.758570 -4.566694 12 21 16 
-2.759996 0.768295 -4.625242 12 18 14 
-2.753585 0.768295 -4.625242 14 21 15 
-2.819469 0.788513 -4.746959 11 18 12 
-2.740765 0.768295 -4.625242 13 21 15 
-2.734355 0.768295 -4.625242 13 20 14 
-2.727944 0.768295 -4.625242 13 22 18 
-2.721534 0.768295 -4.625242 14 21 14 
-2.786575 0.788513 -4.746959 13 21 17 
-2.779996 0.788513 -4.746959 11 20 13 
-2.737398 0.778273 -4.685310 15 22 17 
-2.730905 0.778273 -4.685310 12 21 16 
-2.724411 0.778273 -4.685310 13 21 16 
-2.717918 0.778273 -4.685310 11 19 14 
-2.747101 0.788513 -4.746959 13 22 16 
-2.704931 0.778273 -4.685310 12 21 14 
-2.698437 0.778273 -4.685310 13 22 17 
-2.691944 0.778273 -4.685310 12 21 14 
-2.685450 0.778273 -4.685310 13 22 17 
-2.714206 0.788513 -4.746959 13 20 14 
-2.672463 0.778273 -4.685310 14 21 16 
-2.665970 0.778273 -4.685310 12 19 13 
-2.659476 0.778273 -4.685310 13 22 16 
-2.652983 0.778273 -4.685310 14 22 15 
-2.646489 0.778273 -4.685310 13 23 15 
-2.606149 0.768295 -4.625242 11 19 13 
-2.633502 0.778273 -4.685310 14 23 18 
-2.593329 0.768295 -4.625242 13 21 15 
-2.586919 0.768295 -4.625242 14 22 16 
-2.580508 0.768295 -4.625242 13 21 15 
-2.574098 0.768295 -4.625242 14 22 16 
-2.567688 0.768295 -4.625242 13 21 14 
-2.561278 0.768295 -4.625242 14 22 17 
-2.554868 0.768295 -4.625242 13 20 15 
-2.548457 0.768295 -4.625242 14 21 16 
-2.542047 0.768295 -4.625242 13 20 15 
-2.535637 0.768295 -4.625242 13 22 17 
-2.529227 0.768295 -4.625242 14 21 16 
-2.522816 0.768295 -4.625242 14 23 18 
-2.484553 0.758570 -4.566694 13 21 15 
-2.447246 0.749087 -4.509611 14 24 15 
-2.503585 0.768295 -4.625242 13 22 15 
-2.465565 0.758570 -4.566694 14 23 18 
-2.490765 0.768295 -4.625242 14 23 16 
-2.452907 0.758570 -4.566694 14 21 15 
-2.477944 0.768295 -4.625242 15 20 15 
-2.503632 0.778273 -4.685310 14 21 15 
-2.497139 0.778273 -4.685310 13 23 15 
-2.458714 0.768295 -4.625242 14 22 15 
-2.484151 0.778273 -4.685310 13 23 14 
-2.477658 0.778273 -4.685310 15 23 16 
-2.471164 0.778273 -4.685310 16 22 14 
-2.464671 0.778273 -4.685310 16 24 17 
-2.458177 0.778273 -4.685310 14 21 15 
-2.451684 0.778273 -4.685310 16 24 19 
-2.445190 0.778273 -4.685310 14 22 15 
-2.438697 0.778273 -4.685310 16 25 17 
-2.432204 0.778273 -4.685310 14 24 16 
-2.425710 0.778273 -4.685310 17 25 19 
-2.419216 0.778273 -4.685310 15 23 18 
-2.444469 0.788513 -4.746959 17 24 18 
-2.437890 0.788513 -4.746959 15 23 17 
-2.399736 0.778273 -4.685310 14 24 18 
-2.424732 0.788513 -4.746959 14 24 17 
-2.386749 0.778273 -4.685310 17 26 19 
-2.380255 0.778273 -4.685310 14 23 16 
-2.373762 0.778273 -4.685310 16 25 17 
-2.336919 0.768295 -4.625242 17 24 17 
-2.360775 0.778273 -4.685310 17 24 17 
-2.354281 0.778273 -4.685310 16 24 16 
-2.347788 0.778273 -4.685310 18 24 18 
-2.341294 0.778273 -4.685310 16 22 16 
-2.334801 0.778273 -4.685310 16 25 19 
-2.328307 0.778273 -4.685310 17 24 16 
-2.292047 0.768295 -4.625242 17 27 18 
-2.285637 0.768295 -4.625242 18 25 16 
-2.308827 0.778273 -4.685310 16 25 17 
-2.272816 0.768295 -4.625242 15 24 17 
-2.266406 0.768295 -4.625242 16 25 18 
-2.289346 0.778273 -4.685310 15 22 16 
-2.253585 0.768295 -4.625242 18 26 19 
-2.276359 0.778273 -4.685310 16 22 16 
-2.240765 0.768295 -4.625242 16 25 18 
-2.263372 0.778273 -4.685310 17 24 16 
-2.256879 0.778273 -4.685310 20 27 18 
-2.250385 0.778273 -4.685310 15 23 15 
-2.243892 0.778273 -4.685310 17 25 18 
-2.237398 0.778273 -4.685310 16 24 16 
-2.260259 0.788513 -4.746959 18 23 20 
-2.224411 0.778273 -4.685310 15 23 17 
-2.217918 0.778273 -4.685310 19 26 19 
-2.211424 0.778273 -4.685310 16 24 17 
-2.204931 0.778273 -4.685310 17 25 19 
-2.198437 0.778273 -4.685310 14 23 15 
-2.191944 0.778273 -4.685310 10 17 13 
-2.214206 0.788513 -4.746959 6 14 9 
-2.207627 0.788513 -4.746959 7 14 12 
-2.172463 0.778273 -4.685310 6 14 9 
-2.165970 0.778273 -4.685310 6 14 11 
-2.187890 0.788513 -4.746959 5 14 10 
-2.152983 0.778273 -4.685310 7 15 12 
-2.174732 0.788513 -4.746959 6 13 10 
-2.139996 0.778273 -4.685310 8 15 12 
-2.133502 0.778273 -4.685310 7 13 10 
-2.127009 0.778273 -4.685310 8 14 10 
-2.093329 0.768295 -4.625242 6 14 10 
-2.086919 0.768295 -4.625242 6 14 13 
-2.107528 0.778273 -4.685310 6 12 10 
-2.101035 0.778273 -4.685310 7 13 12 
-2.067688 0.768295 -4.625242 6 12 10 
-2.035186 0.758570 -4.566694 7 13 12 
-2.054868 0.768295 -4.625242 6 11 9 
-2.048457 0.768295 -4.625242 7 14 11 
-2.042047 0.768295 -4.625242 6 18 13 
-2.009869 0.758570 -4.566694 16 37 38 
-2.003540 0.758570 -4.566694 23 44 51 
-1.997211 0.758570 -4.566694 17 43 49 
-1.990882 0.758570 -4.566694 17 42 48 
-2.009996 0.768295 -4.625242 19 44 49 
-1.978224 0.758570 -4.566694 17 41 49 
-1.971895 0.758570 -4.566694 19 44 51 
-1.990765 0.768295 -4.625242 18 40 47 
-1.959236 0.758570 -4.566694 19 44 50 
-1.952907 0.758570 -4.566694 21 44 50 
-1.946578 0.758570 -4.566694 21 46 52 
-1.915996 0.749087 -4.509611 17 43 46 
-1.886169 0.739839 -4.453937 23 46 51 
-1.927591 0.758570 -4.566694 25 47 49 
-1.921262 0.758570 -4.566694 27 49 56 
-1.914932 0.758570 -4.566694 18 44 48 
-1.908603 0.758570 -4.566694 21 48 54 
-1.878496 0.749087 -4.509611 22 44 53 
-1.826581 0.730817 -4.399620 22 47 54 
-1.865996 0.749087 -4.509611 21 46 53 
-1.859746 0.749087 -4.509611 22 48 55 
-1.853496 0.749087 -4.509611 21 45 51 
-1.847246 0.749087 -4.509611 21 45 51 
-1.818267 0.739839 -4.453937 20 43 47 
-1.834746 0.749087 -4.509611 17 42 44 
-1.828496 0.749087 -4.509611 38 61 52 
-1.799749 0.739839 -4.453937 120 113 99 
-1.793576 0.739839 -4.453937 115 103 89 
-1.787403 0.739839 -4.453937 121 109 93 
-1.803496 0.749087 -4.509611 123 108 89 
-1.775058 0.739839 -4.453937 126 109 98 
-1.768885 0.739839 -4.453937 118 97 89 
-1.762712 0.739839 -4.453937 110 93 82 
-1.778496 0.749087 -4.509611 112 96 87 
-1.729020 0.730817 -4.399620 121 102 94 
-1.722923 0.730817 -4.399620 110 91 83 
-1.696141 0.722012 -4.346613 110 93 86 
-1.710728 0.730817 -4.399620 116 97 88 
-1.704630 0.730817 -4.399620 114 98 89 
-1.740996 0.749087 -4.509611 118 102 90 
-1.692435 0.730817 -4.399620 120 103 93 
-1.707156 0.739839 -4.453937 111 92 84 
-1.680240 0.730817 -4.399620 89 78 72 
-1.674142 0.730817 -4.399620 72 69 56 
-1.668045 0.730817 -4.399620 105 98 83 
-1.661947 0.730817 -4.399620 127 111 99 
-1.655850 0.730817 -4.399620 116 106 92 
-1.649752 0.730817 -4.399620 120 106 94 
-1.643654 0.730817 -4.399620 121 107 96 
-1.637557 0.730817 -4.399620 119 103 94 
-1.631459 0.730817 -4.399620 124 112 99 
-1.625362 0.730817 -4.399620 126 111 101 
-1.619264 0.730817 -4.399620 123 106 99 
-1.613167 0.730817 -4.399620 122 106 95 
-1.607069 0.730817 -4.399620 126 109 99 
-1.600971 0.730817 -4.399620 125 108 98 
-1.594874 0.730817 -4.399620 126 111 101 
-1.588776 0.730817 -4.399620 121 105 98 
-1.563610 0.722012 -4.346613 125 110 98 
-1.557586 0.722012 -4.346613 127 114 99 
-1.551562 0.722012 -4.346613 130 118 103 
-1.545538 0.722012 -4.346613 130 115 101 
-1.539514 0.722012 -4.346613 132 117 103 
-1.533490 0.722012 -4.346613 129 114 100 
-1.509282 0.713417 -4.294868 132 116 102 
-1.521442 0.722012 -4.346613 128 115 101 
-1.497377 0.713417 -4.294868 129 113 101 
-1.509394 0.722012 -4.346613 128 112 101 
-1.485472 0.713417 -4.294868 128 111 100 
-1.479520 0.713417 -4.294868 128 111 101 
-1.473567 0.713417 -4.294868 128 113 101 
-1.467615 0.713417 -4.294868 126 109 98 
-1.479273 0.722012 -4.346613 126 112 100 
-1.455710 0.713417 -4.294868 126 111 98 
-1.449758 0.713417 -4.294868 127 111 98 
-1.443805 0.713417 -4.294868 126 111 97 
-1.437853 0.713417 -4.294868 126 111 98 
-1.431901 0.713417 -4.294868 124 109 97 
-1.425948 0.713417 -4.294868 126 112 99 
-1.437104 0.722012 -4.346613 125 112 96 
-1.431080 0.722012 -4.346613 126 112 99 
-1.425056 0.722012 -4.346613 125 111 96 
-3.564386 0.724719 -4.399620 62 72 74 
-3.515418 0.715988 -4.346613 64 76 79 
-3.509393 0.715988 -4.346613 67 76 79 
-3.546093 0.724719 -4.399620 72 81 84 
-3.539996 0.724719 -4.399620 67 76 76 
-3.533898 0.724719 -4.399620 68 76 79 
-3.527801 0.724719 -4.399620 69 76 78 
-3.521703 0.724719 -4.399620 65 76 76 
-3.473249 0.715988 -4.346613 61 74 74 
-3.509508 0.724719 -4.399620 65 76 79 
-3.503411 0.724719 -4.399620 69 77 79 
-3.497313 0.724719 -4.399620 69 77 80 
-3.491215 0.724719 -4.399620 68 76 78 
-3.485118 0.724719 -4.399620 68 77 78 
-3.521971 0.733667 -4.453937 64 73 74 
-3.515798 0.733667 -4.453937 66 72 69 
-3.509625 0.733667 -4.453937 19 25 20 
-3.460728 0.724719 -4.399620 3 7 5 
-3.454630 0.724719 -4.399620 7 13 11 
-3.448533 0.724719 -4.399620 5 13 12 
-3.528496 0.742837 -4.509611 4 10 9 
-3.522246 0.742837 -4.509611 7 15 13 
-3.515996 0.742837 -4.509611 4 12 9 
-3.554173 0.752240 -4.566694 6 13 12 
-3.418045 0.724719 -4.399620 4 12 10 
-3.454070 0.733667 -4.453937 5 13 12 
-3.490996 0.742837 -4.509611 5 11 10 
-3.484746 0.742837 -4.509611 6 12 13 
-3.478496 0.742837 -4.509611 5 11 12 
-3.561278 0.761885 -4.625242 6 14 13 
-3.509869 0.752240 -4.566694 6 12 11 
-3.503540 0.752240 -4.566694 7 14 14 
-3.497211 0.752240 -4.566694 5 13 12 
-3.447246 0.742837 -4.509611 6 13 12 
-3.484553 0.752240 -4.566694 5 13 10 
-3.522816 0.761885 -4.625242 7 14 11 
-3.471895 0.752240 -4.566694 5 11 10 
-3.509996 0.761885 -4.625242 6 13 11 
-3.459236 0.752240 -4.566694 5 14 11 
-3.497175 0.761885 -4.625242 6 13 12 
-3.536099 0.771779 -4.685310 5 11 11 
-3.484355 0.761885 -4.625242 8 15 14 
-3.433920 0.752240 -4.566694 5 12 11 
-3.427591 0.752240 -4.566694 6 13 12 
-3.465124 0.761885 -4.625242 5 12 10 
-3.503632 0.771779 -4.685310 7 14 13 
-3.497139 0.771779 -4.685310 5 13 12 
-3.402274 0.752240 -4.566694 7 15 13 
-3.439483 0.761885 -4.625242 5 12 11 
-3.477658 0.771779 -4.685310 6 15 13 
-3.471164 0.771779 -4.685310 6 15 11 
-3.420252 0.761885 -4.625242 7 15 15 
-3.413842 0.761885 -4.625242 6 13 11 
-3.407432 0.761885 -4.625242 7 14 12 
-3.445190 0.771779 -4.685310 6 13 9 
-3.394611 0.761885 -4.625242 6 16 12 
-3.345312 0.752240 -4.566694 5 14 10 
-3.338983 0.752240 -4.566694 6 16 13 
-3.375380 0.761885 -4.625242 6 14 11 
-3.412723 0.771779 -4.685310 9 16 14 
-3.362560 0.761885 -4.625242 8 14 13 
-3.356149 0.761885 -4.625242 9 16 13 
-3.349739 0.761885 -4.625242 8 16 11 
-3.386749 0.771779 -4.685310 9 18 14 
-3.380255 0.771779 -4.685310 7 15 12 
-3.330508 0.761885 -4.625242 8 17 13 
-3.324098 0.761885 -4.625242 7 14 11 
-3.317688 0.761885 -4.625242 8 15 14 
-3.311278 0.761885 -4.625242 6 15 11 
-3.263034 0.752240 -4.566694 7 17 13 
-3.215996 0.742837 -4.509611 9 17 11 
-3.170119 0.733667 -4.453937 9 19 14 
-3.163946 0.733667 -4.453937 8 17 13 
-3.157774 0.733667 -4.453937 9 18 16 
-3.039044 0.707464 -4.294868 9 17 13 
-2.997408 0.699141 -4.244339 10 18 15 
-2.991525 0.699141 -4.244339 12 17 14 
-2.950926 0.691012 -4.194987 13 21 19 
-2.945112 0.691012 -4.194987 11 18 16 
-2.872496 0.675307 -4.099646 13 20 17 
-2.866814 0.675307 -4.099646 13 20 15 
-2.828985 0.667719 -4.053583 12 21 17 
-2.823367 0.667719 -4.053583 11 19 16 
-2.817749 0.667719 -4.053583 14 22 18 
-2.750326 0.653044 -3.964493 18 24 19 
-2.685803 0.639000 -3.879235 17 24 20 
-2.651911 0.632202 -3.837967 16 23 17 
-2.646592 0.632202 -3.837967 22 30 23 
-2.613470 0.625547 -3.797567 37 37 36 
-2.554430 0.612649 -3.719267 4 11 5 
-2.497774 0.600273 -3.644130 18 24 19 
-2.492724 0.600273 -3.644130 16 23 17 
-2.462797 0.594270 -3.607689 17 22 18 
-2.457797 0.594270 -3.607689 16 23 18 
-2.452797 0.594270 -3.607689 11 19 14 
-2.447797 0.594270 -3.607689 12 20 16 
-2.467471 0.600273 -3.644130 11 18 15 
-2.413660 0.588386 -3.571969 9 18 14 
-2.408710 0.588386 -3.571969 8 16 14 
-2.427797 0.594270 -3.607689 8 17 14 
-2.422797 0.594270 -3.607689 8 15 12 
-2.417797 0.594270 -3.607689 8 16 14 
-2.412797 0.594270 -3.607689 6 14 10 
-2.407797 0.594270 -3.607689 8 17 13 
-2.402797 0.594270 -3.607689 6 14 11 
-2.397797 0.594270 -3.607689 6 15 12 
-2.416966 0.600273 -3.644130 9 17 12 
-2.411916 0.600273 -3.644130 13 20 17 
-2.406865 0.600273 -3.644130 9 17 14 
-2.401815 0.600273 -3.644130 10 18 15 
-2.396764 0.600273 -3.644130 10 17 14 
-2.367797 0.594270 -3.607689 25 34 28 
-2.386663 0.600273 -3.644130 27 29 27 
-2.381613 0.600273 -3.644130 5 15 9 
-2.376562 0.600273 -3.644130 11 17 15 
-2.371512 0.600273 -3.644130 8 17 14 
-2.366461 0.600273 -3.644130 8 14 12 
-2.361411 0.600273 -3.644130 11 18 17 
-2.380405 0.606398 -3.681315 5 13 10 
-2.399790 0.612649 -3.719267 7 15 13 
-2.370201 0.606398 -3.681315 6 13 12 
-2.341209 0.600273 -3.644130 6 15 12 
-2.359997 0.606398 -3.681315 6 13 10 
-2.379172 0.612649 -3.719267 6 12 11 
-2.374017 0.612649 -3.719267 6 13 11 
-2.418733 0.625547 -3.797567 8 14 13 
-2.492170 0.645946 -3.921401 6 13 12 
-2.459996 0.639000 -3.879235 8 15 12 
-2.454620 0.639000 -3.879235 6 13 10 
-2.475866 0.645946 -3.921401 7 16 11 
-2.582723 0.675307 -4.099646 7 12 11 
-2.577042 0.675307 -4.099646 8 15 12 
-2.662114 0.699141 -4.244339 6 14 11 
-2.656231 0.699141 -4.244339 6 14 11 
-2.650349 0.699141 -4.244339 7 17 11 
-2.613717 0.691012 -4.194987 22 30 25 
-2.669996 0.707464 -4.294868 12 20 13 
-2.696141 0.715988 -4.346613 21 36 22 
-2.690116 0.715988 -4.346613 106 101 93 
-2.684092 0.715988 -4.346613 87 82 71 
-2.678068 0.715988 -4.346613 94 86 78 
-2.704630 0.724719 -4.399620 87 80 72 
-2.731848 0.733667 -4.453937 43 40 35 
-2.725675 0.733667 -4.453937 13 28 12 
-2.719502 0.733667 -4.453937 116 109 100 
-2.747246 0.742837 -4.509611 91 89 78 
-2.707156 0.733667 -4.453937 101 95 86 
-2.734746 0.742837 -4.509611 94 87 79 
-2.728496 0.742837 -4.509611 58 51 46 
-2.756705 0.752240 -4.566694 1 10 2 
-2.785637 0.761885 -4.625242 15 20 15 
-2.744046 0.752240 -4.566694 11 18 13 
-2.772816 0.761885 -4.625242 11 19 14 
-2.731388 0.752240 -4.566694 13 20 15 
-2.759996 0.761885 -4.625242 10 18 13 
-2.753585 0.761885 -4.625242 12 20 16 
-2.819469 0.781934 -4.746959 10 18 12 
-2.740765 0.761885 -4.625242 12 19 15 
-2.734355 0.761885 -4.625242 11 17 13 
-2.763372 0.771779 -4.685310 11 20 15 
-2.756879 0.771779 -4.685310 12 18 14 
-2.786575 0.781934 -4.746959 12 21 15 
-2.779996 0.781934 -4.746959 11 18 13 
-2.737398 0.771779 -4.685310 11 20 15 
-2.730905 0.771779 -4.685310 10 19 13 
-2.724411 0.771779 -4.685310 12 20 14 
-2.717918 0.771779 -4.685310 10 19 13 
-2.711424 0.771779 -4.685310 12 20 15 
-2.704931 0.771779 -4.685310 11 18 14 
-2.698437 0.771779 -4.685310 13 20 14 
-2.691944 0.771779 -4.685310 11 19 12 
-2.720785 0.781934 -4.746959 12 20 14 
-2.714206 0.781934 -4.746959 12 19 13 
-2.672463 0.771779 -4.685310 13 21 15 
-2.665970 0.771779 -4.685310 13 20 12 
-2.659476 0.771779 -4.685310 13 20 16 
-2.652983 0.771779 -4.685310 12 19 15 
-2.646489 0.771779 -4.685310 13 20 15 
-2.606149 0.761885 -4.625242 11 19 13 
-2.633502 0.771779 -4.685310 11 21 15 
-2.593329 0.761885 -4.625242 10 19 13 
-2.586919 0.761885 -4.625242 13 20 17 
-2.580508 0.761885 -4.625242 10 18 13 
-2.574098 0.761885 -4.625242 12 20 14 
-2.535186 0.752240 -4.566694 13 20 14 
-2.561278 0.761885 -4.625242 12 20 16 
-2.554868 0.761885 -4.625242 13 20 12 
-2.548457 0.761885 -4.625242 13 21 15 
-2.509869 0.752240 -4.566694 11 18 14 
-2.503540 0.752240 -4.566694 11 18 15 
-2.529227 0.761885 -4.625242 13 19 14 
-2.522816 0.761885 -4.625242 14 22 15 
-2.484553 0.752240 -4.566694 13 20 13 
-2.447246 0.742837 -4.509611 12 22 15 
-2.503585 0.761885 -4.625242 13 21 14 
-2.465565 0.752240 -4.566694 14 22 16 
-2.459236 0.752240 -4.566694 13 20 15 
-2.452907 0.752240 -4.566694 12 22 15 
-2.477944 0.761885 -4.625242 12 19 13 
-2.503632 0.771779 -4.685310 13 22 15 
-2.465124 0.761885 -4.625242 12 20 14 
-2.458714 0.761885 -4.625242 12 21 15 
-2.484151 0.771779 -4.685310 13 20 15 
-2.477658 0.771779 -4.685310 16 23 15 
-2.471164 0.771779 -4.685310 13 21 14 
-2.464671 0.771779 -4.685310 14 22 14 
-2.458177 0.771779 -4.685310 12 21 13 
-2.451684 0.771779 -4.685310 13 21 16 
-2.445190 0.771779 -4.685310 14 21 13 
-2.438697 0.771779 -4.685310 13 21 15 
-2.432204 0.771779 -4.685310 15 19 15 
-2.425710 0.771779 -4.685310 15 21 16 
-2.388201 0.761885 -4.625242 14 20 15 
-2.412723 0.771779 -4.685310 15 21 16 
-2.437890 0.781934 -4.746959 12 19 13 
-2.399736 0.771779 -4.685310 15 21 18 
-2.424732 0.781934 -4.746959 13 21 14 
-2.386749 0.771779 -4.685310 15 22 17 
-2.349739 0.761885 -4.625242 13 20 14 
-2.373762 0.771779 -4.685310 15 24 17 
-2.336919 0.761885 -4.625242 15 21 15 
-2.360775 0.771779 -4.685310 14 23 17 
-2.354281 0.771779 -4.685310 15 22 15 
-2.347788 0.771779 -4.685310 15 21 15 
-2.341294 0.771779 -4.685310 14 20 15 
-2.334801 0.771779 -4.685310 15 23 17 
-2.328307 0.771779 -4.685310 15 22 16 
-2.292047 0.761885 -4.625242 14 22 16 
-2.285637 0.761885 -4.625242 14 22 16 
-2.279227 0.761885 -4.625242 15 24 17 
-2.272816 0.761885 -4.625242 12 22 14 
-2.266406 0.761885 -4.625242 15 23 18 
-2.289346 0.771779 -4.685310 14 20 14 
-2.253585 0.761885 -4.625242 15 22 15 
-2.276359 0.771779 -4.685310 14 20 13 
-2.240765 0.761885 -4.625242 13 22 15 
-2.263372 0.771779 -4.685310 11 19 12 
-2.256879 0.771779 -4.685310 15 23 15 
-2.221534 0.761885 -4.625242 14 22 14 
-2.243892 0.771779 -4.685310 15 23 16 
-2.237398 0.771779 -4.685310 14 23 15 
-2.260259 0.781934 -4.746959 15 24 17 
-2.253680 0.781934 -4.746959 14 21 13 
-2.217918 0.771779 -4.685310 15 22 16 
-2.211424 0.771779 -4.685310 13 20 13 
-2.204931 0.771779 -4.685310 11 21 13 
-2.198437 0.771779 -4.685310 7 16 10 
-2.220785 0.781934 -4.746959 7 16 12 
-2.214206 0.781934 -4.746959 6 12 10 
-2.207627 0.781934 -4.746959 7 14 12 
-2.172463 0.771779 -4.685310 6 12 10 
-2.194469 0.781934 -4.746959 8 14 12 
-2.187890 0.781934 -4.746959 6 12 8 
-2.152983 0.771779 -4.685310 7 14 11 
-2.174732 0.781934 -4.746959 7 13 10 
-2.139996 0.771779 -4.685310 6 14 13 
-2.133502 0.771779 -4.685310 5 13 10 
-2.127009 0.771779 -4.685310 8 16 13 
-2.093329 0.761885 -4.625242 7 12 10 
-2.114022 0.771779 -4.685310 7 13 10 
-2.107528 0.771779 -4.685310 5 12 9 
-2.101035 0.771779 -4.685310 8 14 12 
-2.067688 0.761885 -4.625242 6 11 10 
-2.035186 0.752240 -4.566694 7 14 12 
-2.054868 0.761885 -4.625242 6 13 8 
-2.048457 0.761885 -4.625242 6 14 10 
-2.042047 0.761885 -4.625242 5 16 13 
-2.009869 0.752240 -4.566694 17 38 39 
-2.003540 0.752240 -4.566694 22 43 51 
-1.997211 0.752240 -4.566694 17 42 49 
-1.990882 0.752240 -4.566694 19 43 50 
-2.009996 0.761885 -4.625242 19 44 51 
-1.978224 0.752240 -4.566694 15 41 47 
-1.971895 0.752240 -4.566694 19 45 51 
-1.990765 0.761885 -4.625242 18 43 49 
-1.959236 0.752240 -4.566694 16 43 48 
-1.952907 0.752240 -4.566694 18 42 47 
-1.946578 0.752240 -4.566694 23 46 51 
-1.915996 0.742837 -4.509611 18 40 46 
-1.909746 0.742837 -4.509611 23 45 52 
-1.927591 0.752240 -4.566694 25 45 48 
-1.921262 0.752240 -4.566694 26 50 56 
-1.914932 0.752240 -4.566694 18 44 50 
-1.908603 0.752240 -4.566694 24 48 56 
-1.878496 0.742837 -4.509611 21 45 50 
-1.826581 0.724719 -4.399620 23 48 52 
-1.842959 0.733667 -4.453937 21 46 50 
-1.859746 0.742837 -4.509611 20 46 53 
-1.853496 0.742837 -4.509611 19 45 51 
-1.847246 0.742837 -4.509611 22 45 52 
-1.818267 0.733667 -4.453937 20 41 46 
-1.812095 0.733667 -4.453937 18 44 44 
-1.828496 0.742837 -4.509611 40 63 50 
-1.799749 0.733667 -4.453937 124 115 103 
-1.793576 0.733667 -4.453937 114 103 89 
-1.787403 0.733667 -4.453937 121 110 94 
-1.781230 0.733667 -4.453937 124 110 93 
-1.775058 0.733667 -4.453937 128 113 101 
-1.768885 0.733667 -4.453937 123 106 95 
-1.762712 0.733667 -4.453937 123 106 96 
-1.778496 0.742837 -4.509611 122 107 94 
-1.729020 0.724719 -4.399620 123 107 95 
-1.722923 0.724719 -4.399620 121 105 92 
-1.696141 0.715988 -4.346613 122 108 96 
-1.710728 0.724719 -4.399620 120 106 91 
